0.3085221 -0.13277936 0.7068768 
-0.3172494 -0.04673803 -0.31583923 
0.27692005 0.15018627 -0.6462662 
-0.30692396 -0.26330313 0.6594699 
0.26792395 -0.07788239 0.739232 
-0.19320276 0.12994479 0.29911125 
0.3410432 0.13189895 0.38886997 
0.32279244 0.020774193 0.29835248 
0.2709826 0.16205555 -0.52943194 
-0.20069437 0.047532443 0.2775386 
0.29108918 -0.17666112 -0.3094709 
-0.132394 -0.14987141 -0.77793276 
0.05339742 0.2822931 -0.014019372 
-0.060882766 0.069149144 0.9044005 
-0.09966402 0.28279993 -0.07218644 
-0.27285156 0.15461172 -0.55664325 
-0.032138217 -0.09202744 0.3893178 
0.028916445 0.27779365 0.17094459 
0.04232049 -0.08608746 -0.050117254 
0.19235401 -0.02363565 0.42404878 
-0.28882587 -0.17596789 -0.6004303 
0.2557277 0.18986356 0.012905908 
0.19582205 -0.14273344 -0.7834926 
0.12796573 0.23901287 0.26619676 
-0.2814139 -0.03404165 0.0345006 
0.047976617 -0.024384812 -0.4816832 
0.023588477 0.14866209 -0.745881 
0.14902411 -0.13933687 0.8799818 
-0.046004385 0.28271002 -0.23906742 
0.20517883 -0.028071783 -0.26742345 
-0.016261578 0.10377148 0.54961866 
0.3215755 0.00974457 0.09368643 
-0.32093102 0.01622602 0.5823468 
0.29093835 0.07322424 0.8147963 
0.23959316 -0.18580431 -0.5420994 
-0.04701763 0.09675858 0.010601093 
0.2999691 -0.14008406 -0.6010936 
0.27176762 0.15533118 -0.19571501 
-0.26605317 -0.12395252 0.91497606 
-0.17431027 -0.16455296 0.18945016 
0.18478371 -0.098011255 0.48798177 
-0.23618513 0.22615434 0.11185243 
-0.024836875 -0.0029578093 -0.27354544 
-0.1418529 0.28261164 -0.4729222 
0.15179142 -0.16455296 0.15332858 
-0.25835174 0.07239235 -0.81098783 
0.05793192 0.044771686 0.07234747 
-0.23116572 -0.018921008 -0.55170447 
0.3193572 -0.066530034 -0.1522727 
-0.31643343 0.042837188 0.24580726 
-0.012778267 -0.03455445 0.4392559 
-0.2431362 -0.23694809 -0.34865636 
-0.26354817 0.1694488 -0.157234 
-0.31188715 0.032738276 -0.80361706 
-0.21991847 -0.1604685 0.44193423 
0.20372398 -0.07623071 0.23646918 
0.33177072 -0.014350632 0.57738924 
-0.10986579 -0.07711506 0.1173759 
-0.00696424 -0.05925041 -0.66935927 
0.1087997 0.10008704 0.6087196 
0.19850504 0.077589735 0.8341282 
-0.18766251 0.20622294 0.3160655 
0.100875296 0.26248446 -0.5725005 
-0.30790105 0.058419954 0.82537097 
-0.18722315 -0.06654362 -0.11796608 
0.1366452 0.2826922 -0.3714366 
0.2328688 -0.22940308 0.59162575 
-0.24704827 0.20677379 -0.25819972 
-0.36798006 0.12424154 0.36254025 
0.013753463 -0.042125687 0.9478119 
0.21583308 -0.087409385 -0.4180256 
-0.1293466 0.007861874 0.2670539 
0.22232792 0.08113928 -0.34213808 
-0.21722236 0.10286934 -0.30604592 
-0.038755223 -0.13903476 -0.78651196 
0.24176374 0.068977706 -0.81098783 
-0.19732094 0.09106845 0.717902 
0.16846555 0.11674056 0.39720568 
0.3134778 -0.025442367 0.4628436 
0.1866976 0.2810406 0.040807523 
-0.2735935 -0.08690426 0.74473196 
0.20579056 -0.028968304 -0.612931 
-0.042946286 0.12437456 -0.7813708 
0.31844097 -0.026407367 -0.32801673 
0.2067386 -0.16455296 -0.03675565 
0.05037483 -0.07010431 0.14540164 
0.17142117 0.0132216 0.062265664 
-0.12014346 -0.16455296 0.0053993147 
0.2494352 0.17123152 0.22097073 
0.18844567 -0.16455296 0.35535216 
-0.06323947 -0.12895758 0.9180226 
-0.3008563 -0.06207675 -0.4117575 
0.29511365 -0.08195963 0.9519405 
-0.10874163 0.23931639 -0.61832327 
-0.28804272 -0.16329484 -0.17566557 
-0.23055868 -0.06571614 0.1765195 
-0.1128186 -0.0020726274 0.5012403 
-0.23502912 -0.01357796 0.4100408 
-0.03244727 -0.103970446 -0.18971856 
0.041273613 0.10307824 0.33019528 
0.23572701 0.23307732 -0.13469268 
-0.14519729 -0.024384812 -0.3718151 
-0.32574806 -0.069047034 -0.7498306 
0.27958524 -0.25569066 -0.4754291 
0.21893014 0.1842287 -0.68931973 
-0.23106454 0.095258765 0.054826785 
0.2790213 0.045188565 -0.06017757 
0.31657955 0.029332256 -0.44765106 
-0.32373768 -0.019476814 -0.47622913 
-0.27125713 0.136879 -0.7219195 
-0.023446007 0.16115247 0.38419163 
-0.2813858 -0.014942411 -0.16108145 
0.07012233 -0.16455296 0.42489192 
0.062140692 0.022574542 -0.79010934 
-0.24330202 -0.04077791 0.56848115 
-0.15401071 0.2811465 0.056203384 
0.3229723 0.01657273 0.63923776 
-0.06439905 0.115904935 -0.3508869 
0.26309004 -0.16455296 0.37993667 
0.0071329894 -0.16455296 0.08671616 
-0.18255506 -0.05930345 -0.734748 
0.12889598 0.020182606 -0.322603 
-0.06686527 -0.07239254 0.49358854 
-0.31979376 0.00887868 0.10424644 
-0.12535675 -0.0529939 0.02121328 
-0.21203622 0.10524694 0.523777 
0.31832388 0.04063196 0.13626736 
0.016412482 0.28280553 -0.44946942 
0.3143631 0.0077193906 -0.7061803 
0.29443544 -0.21913853 -0.33122152 
0.25714508 0.18960689 -0.32979015 
-0.20516104 0.006541549 -0.39829656 
-0.015063597 -0.024384812 -0.5368533 
-0.2858244 -0.25749308 0.59187776 
-0.30908424 -0.095299594 0.40109527 
0.30379313 -0.12004212 0.13931975 
-0.28525013 -0.16599001 -0.054344103 
0.035858992 0.08609308 0.76611733 
-0.16977522 -0.052108034 0.49707812 
0.0808016 -0.11787315 -0.26433763 
-0.31602502 0.004986363 -0.30952427 
0.3179604 -0.05880293 0.29680863 
-0.10681463 0.2828299 -0.3218835 
0.28336337 -0.16144559 -0.035763573 
0.28336337 -0.16334261 -0.24172981 
-0.22290875 -0.16455296 0.055049356 
0.31092313 -0.2549403 0.5857305 
0.17290786 -0.0055478816 0.9418221 
0.11645806 0.27845597 0.16131613 
-0.062809765 -0.16455296 0.37301272 
-0.04476996 0.23070626 0.27759668 
0.08324459 0.08017438 -0.28840968 
-0.08846137 0.08843791 0.7454412 
-0.22113256 0.106251195 -0.47012585 
0.32623798 -0.057389677 -0.7775018 
0.18609054 0.06424874 0.49203905 
0.090164 0.15268002 -0.009486191 
-0.31745926 0.024866054 0.741219 
0.050830584 0.046213426 0.32897836 
0.10389929 0.28280932 -0.21640241 
-0.32059097 0.022931365 0.40994337 
-0.18556315 0.062280517 0.9193725 
-0.31193304 -0.037599996 0.88754845 
-0.31291386 -0.25291494 -0.48126164 
0.3005771 -0.14404956 0.8168348 
-0.22113256 0.09801108 -0.63977504 
0.17041504 -0.06660891 -0.12727696 
0.18766063 0.20833918 0.31295255 
0.12894657 -0.16455296 -0.01169292 
-0.052377824 -0.16455296 0.063424565 
0.32346693 -0.004808555 0.21487778 
0.034627188 -0.15944457 0.28035837 
-0.17497166 -0.11611571 -0.26512644 
0.23300278 -0.047521975 0.6064497 
-0.13825464 -0.084746525 0.28057942 
-0.31840542 -0.15729931 0.6683864 
0.1990203 0.051505417 -0.43501267 
0.3111817 -0.11484785 -0.44809976 
-0.2261023 0.241427 0.24301648 
-0.14460054 0.14827424 0.036108807 
-0.025323918 -0.16455296 -0.08090057 
0.31942838 -0.0009142698 -0.16961758 
-0.29960755 -0.13100795 0.2772763 
0.22920217 -0.10411143 0.05181204 
-0.25052756 0.19948079 -0.40286252 
0.07816104 -0.10742219 0.054420475 
-0.22079532 0.26144084 -0.089888245 
-0.31134754 0.038403306 -0.6276285 
0.22511023 0.04023476 -0.27415904 
-0.16324571 -0.047249507 0.93897694 
0.07918871 -0.11413775 0.27887258 
0.123708904 -0.059295073 -0.7244264 
0.22005993 0.26767153 -0.495635 
-0.288054 0.11176895 -0.043070633 
-0.312052 -0.15499946 -0.46050212 
0.09397304 -0.1458529 -0.7810626 
0.08331354 0.059841078 0.9424994 
0.11275769 -0.024384812 -0.46723676 
0.2608876 0.09019721 0.66896814 
0.31480527 0.03187792 -0.5587005 
-0.21385455 -0.1385076 -0.27963933 
0.056895066 0.21961266 -0.64589053 
0.30549908 -0.13261269 0.51372975 
-0.068132296 -0.09577483 0.27899626 
0.24118856 0.21962109 0.16347079 
0.043813188 0.041751437 0.4965563 
0.31632566 -0.046790596 -0.024841404 
-0.25158894 -0.10493779 -0.31066436 
-0.14837117 0.042833447 -0.79398954 
0.22495939 0.07452265 0.065405354 
-0.1888944 -0.0266574 -0.26798177 
-0.16388649 -0.00019078013 -0.32095984 
0.21939011 0.26010215 -0.00393067 
-0.0601603 -0.024384812 -0.38835523 
-0.04451927 0.28126076 0.06357287 
0.2545211 -0.08015957 -0.5322405 
-0.31674257 -0.13671008 0.52604496 
0.10644739 -0.062450346 0.024120081 
0.048611674 -0.103970446 -0.14385928 
-0.12327893 -0.028968304 -0.6186231 
-0.23643805 -0.0318041 0.680636 
0.3210097 -0.008166522 0.7839062 
-0.15218395 0.136701 -0.7649815 
-0.03238469 -0.007738686 0.074788235 
-0.2813474 0.08224657 -0.4244287 
-0.16055146 -0.16455296 0.3169283 
0.033958122 -0.15216282 0.47184816 
-0.27704468 -0.05982113 0.26739582 
-0.31868833 0.037391752 0.31528237 
0.31377852 0.04390983 -0.38603756 
0.2277951 0.098073855 -0.5314077 
0.032601636 -0.15997387 -0.097384535 
-0.2908756 -0.1447647 0.8064523 
0.31332415 0.05234667 -0.17287485 
-0.13570654 0.12895459 0.43336624 
-0.28198162 0.12827447 0.2568259 
-0.106702216 0.23014419 -0.020319272 
-0.30537826 0.08334825 -0.24860032 
-0.011582252 -0.06260645 -0.7914255 
-0.16085404 0.27125102 -0.5722626 
0.21304515 -0.069159076 -0.07875998 
0.26235652 -0.24009198 0.7106174 
0.1424309 0.18830006 -0.6927475 
0.30998072 0.09067779 0.32090127 
-0.07906347 -0.06506428 -0.08890928 
-0.2673947 -0.07371268 -0.52829003 
0.051293924 -0.03400605 -0.33955815 
-0.30129847 -0.12186214 0.14078386 
-0.009340954 -0.16888005 0.20575146 
0.2645093 -0.16455296 0.25242108 
0.2710791 -0.2651374 -0.4171928 
0.28718925 0.036314614 0.93937135 
0.28850454 0.09695155 0.5315131 
-0.12843134 0.0068149096 0.36719802 
-0.2719391 0.14273025 0.3980722 
-0.17866829 0.28218916 -0.19882706 
0.05877232 -0.028968304 -0.63871837 
0.20972793 -0.16455296 0.41402873 
0.08129379 0.113399 0.44753346 
-0.30378664 -0.25757647 -0.38372084 
-0.23386277 -0.14484546 0.7267688 
-0.3152203 -0.046071682 -0.6014159 
0.21945569 0.2688238 -0.26566225 
-0.3164138 -0.02668204 -0.052670043 
0.3145982 -0.021623963 -0.6422726 
0.041850306 -0.11488485 0.93593985 
0.26041266 0.15637946 -0.73598087 
-0.2326646 -0.06920366 -0.20361881 
-0.011922967 0.28281304 -0.40439048 
0.25370327 -0.12147675 -0.22505377 
0.06942713 -0.030467842 0.4335648 
-0.0052744457 0.28283367 -0.12742122 
-0.23365106 -0.18496118 -0.50228906 
0.20772693 -0.059287626 -0.7152411 
-0.06322309 -0.035931647 0.96496385 
-0.23536544 0.028937483 -0.5097329 
-0.1723636 -0.16455296 -0.08697948 
-0.1392411 -0.024384812 -0.48916915 
0.029851373 -0.12376601 0.09973612 
0.32503605 -0.035815105 0.84786826 
0.32190338 0.029707067 0.41797736 
-0.1539929 -0.08224067 0.09259103 
-0.102618694 0.05483856 -0.28130403 
0.116070226 0.12235857 -0.784051 
0.24525519 -0.08598113 -0.82090855 
-0.2503102 -0.0934971 -0.059350375 
-0.30465785 0.07031547 -0.5677135 
-0.02663385 -0.11847991 -0.26397038 
-0.22497158 0.20918697 -0.6587285 
0.25814092 -0.023488948 0.50050217 
-0.31501698 0.057403523 0.4827085 
0.30861577 0.072974116 -0.31237215 
0.3201478 -0.033210237 0.12781984 
0.19274184 0.25160912 -0.60193485 
0.10785353 0.07016933 0.36310986 
0.23412132 -0.16811655 0.5268019 
-0.2799244 0.09647566 0.1469602 
0.020186106 0.28279433 -0.2877736 
0.16576195 0.09022813 0.7272269 
-0.2813858 0.023839407 -0.37829867 
0.058528658 -0.0004634812 -0.32091767 
-0.27628678 0.04141419 0.94008523 
0.2371734 -0.07671054 0.15023358 
-0.31188902 0.05794312 0.048947863 
-0.11410763 -0.103970446 -0.1447202 
-0.32015347 -0.07258177 0.5046681 
-0.24586977 0.08109243 0.36651322 
0.23807836 -0.1262966 -0.34654295 
0.13795017 -0.019421635 -0.78197503 
-0.1376935 0.030364983 0.06006148 
0.06011214 0.1704315 0.37021732 
0.2836725 0.1264299 -0.017393172 
-0.20780657 0.008985099 0.015223928 
-0.09816232 -0.059309717 -0.7424692 
0.10123784 -0.08636869 0.9297195 
-0.09738384 -0.16455296 0.25516215 
0.25469628 0.11176146 0.4475672 
-0.0059304982 0.2650906 -0.56743896 
0.30624193 -0.105579495 0.045017697 
0.22497064 0.2578173 -0.36773154 
-0.2255496 0.25262648 -0.512415 
-0.009947252 -0.12209475 0.015221213 
-0.10453633 0.2784513 0.16026036 
0.2790213 -0.08845851 0.3891014 
-0.07603282 -0.065151036 -0.3065284 
-0.15170711 -0.14595987 0.9058207 
-0.18608962 0.0802615 0.817545 
-0.24634849 -0.16455296 0.20085011 
0.08710899 -0.055931527 0.49642047 
0.26134947 -0.16455296 0.21419017 
-0.09190543 0.13660826 0.30226737 
0.2943483 -0.13433464 -0.7031207 
0.1261193 -0.024384812 -0.41640872 
0.11224058 0.059099134 0.010542544 
0.17809682 -0.028968304 -0.5552446 
-0.2813858 0.016971342 -0.70979726 
-0.12513848 0.105623536 0.5171163 
0.31147492 0.046346452 -0.79938555 
-0.13015598 -0.15499759 0.46156207 
0.02339278 0.011972845 0.96044666 
0.089989945 0.11190947 -0.35346404 
0.18262906 -0.00069112476 -0.80195236 
-0.23761655 0.22465828 -0.14031067 
0.2578046 0.18551119 0.12241309 
0.2331124 -0.1683873 0.7350314 
-0.057747103 0.113399 0.44741732 
-0.30196175 -0.10748589 -0.14774139 
0.31868735 0.033760983 -0.0023051358 
0.14680576 0.28257883 -0.13388328 
-0.2557221 -0.21434492 0.53574556 
0.15530537 -0.16455296 0.24161974 
-0.2813858 0.0062068296 -0.23034203 
-0.3170255 -0.15817335 -0.35381532 
0.28595832 0.12860703 -0.446244 
-0.2787337 0.13811089 -0.31895974 
-0.32649282 -0.07802356 -0.6446052 
-0.2686912 0.15499769 0.29916558 
0.28336337 -0.15368138 -0.13947223 
0.055910017 -0.070156865 -0.21863763 
-0.049293403 0.062402297 0.3295564 
-0.1300951 -0.08001511 0.17930178 
-0.26068157 0.17487662 -0.00012763114 
0.21583308 5.27911e-05 -0.35981554 
0.3159369 -0.03768103 -0.41469344 
0.23547125 -0.006825208 0.019523945 
0.18155456 -0.07676656 0.92795455 
0.31009877 0.07670165 0.090028785 
0.27498555 0.10205618 -0.7063892 
-0.0029468774 0.07223591 -0.3365726 
-0.21385455 -0.08913057 -0.4342342 
-0.2275965 0.15037456 -0.7472122 
-0.026806502 0.09829399 0.6366232 
0.0025434217 -0.06766057 0.23447661 
-0.3197994 -0.023422344 0.17491193 
-0.06311554 0.010214842 -0.7877673 
0.30777362 -0.14439663 0.60101724 
-0.2105748 -0.03144446 -0.64193535 
-0.11550347 -0.070598654 -0.22182836 
0.30541757 -0.18539211 -0.50075746 
0.28336337 0.06473213 -0.64770323 
-0.11473904 -0.16455296 0.117365874 
-0.04130698 -0.11514162 0.1673557 
0.2790213 -0.037383314 0.27720693 
-0.24807312 -0.16455296 0.32339224 
-0.25281337 -0.0054736873 0.50112325 
0.23822357 -0.16455296 0.05297789 
-0.1833017 0.09969077 0.6148884 
-0.31776088 -0.046535682 0.64371663 
0.2731953 0.09488778 0.58818114 
-0.30746636 0.07112674 -0.14625281 
0.13514726 0.2319541 0.0037410802 
0.27597666 0.09743214 0.23385645 
0.13840452 -0.08023114 0.115243085 
-0.24280642 -0.21370226 0.6821696 
-0.20576152 0.28134415 -0.31433943 
-0.29313612 0.08848567 0.6382551 
-0.31840542 -0.09202978 -0.41596183 
-0.15300553 -0.06837647 -0.8179342 
-0.329025 -0.051368922 0.79009855 
0.04631735 -0.065173216 -0.10310839 
0.09815482 0.08015939 0.8184602 
-0.26322028 -0.065943874 -0.8204664 
-0.20890637 0.0015767777 -0.80239546 
0.13001265 -0.042788755 -0.26223356 
0.32016093 0.03658844 0.49345458 
0.26991183 0.15107343 -0.104928605 
0.122481704 -0.07443018 0.22455308 
-0.1664402 0.07777147 -0.33878905 
0.25082073 -0.12625077 0.88181514 
-0.21385455 -0.106152356 -0.3889576 
-0.09034031 0.19843905 0.32711697 
0.21145447 0.08213229 0.0058520683 
0.10785166 -0.16455296 0.31332347 
0.04415971 0.25708753 0.23724861 
0.311874 -0.089538075 -0.2883404 
-0.019082759 0.027739974 0.37850147 
-0.30342034 -0.16670105 0.61334926 
-0.13386853 0.09791459 0.3608915 
0.2541642 0.19597903 -0.42629573 
-0.2168139 0.27011 -0.41818395 
0.21310136 -0.03834504 0.070145726 
-0.08676707 -0.028968304 -0.5680901 
0.18239954 0.09527561 0.6712174 
-0.23192266 0.11196662 0.4190041 
0.15185887 0.2824655 -0.514816 
-0.2828107 -0.15604492 -0.6933077 
0.13745648 0.12009338 0.047508467 
0.18018682 0.07598967 -0.28781202 
0.28336337 -0.02388381 -0.10477497 
-0.3148896 0.0062827133 -0.56189495 
-0.05197678 0.28269127 -0.5059782 
0.13452898 -0.103970446 -0.18510573 
0.14883018 -0.1182548 -0.08125842 
-0.019560806 -0.11923517 0.44029108 
-0.2408654 -0.25257486 -0.48293382 
0.03769512 -0.118063875 0.33142248 
-0.0719938 0.077145696 0.28082862 
0.17741202 0.26973155 0.22169676 
0.25676006 -0.11313715 0.31571892 
-0.123618975 0.13829824 -0.0054500713 
-0.20664774 -0.16455296 0.14293674 
-0.034092013 0.079029605 0.8284053 
0.24111359 -0.1922364 -0.36105403 
-0.25430754 -0.016256839 0.12319672 
0.22311014 0.0991493 -0.6572193 
-0.2759964 -0.00831482 0.34732938 
0.33112997 -0.056796473 -0.55919796 
-0.04485259 0.00816381 0.5015935 
0.08086858 -0.06819979 -0.8098056 
-0.060780372 0.19981149 -0.6738831 
0.26736745 0.16325465 0.36999905 
0.24613768 0.018535797 -0.5255602 
-0.21543494 -0.16455296 -0.015576149 
-0.10135683 -0.09842476 0.06530251 
0.31598186 -0.24691097 -0.40646735 
0.14002894 0.28260225 -0.04979406 
0.041703418 -0.123921424 0.0011075417 
0.031997494 -0.03357737 0.06157922 
0.17886406 -0.1320153 0.2743975 
0.23120224 0.08758166 0.36771983 
0.29725522 -0.0701281 0.6485103 
0.23431805 -0.14305569 0.13730618 
-0.22678337 -0.03087507 0.077723145 
0.052516546 0.102807514 0.5262998 
0.077290654 -0.16455296 0.2067098 
-0.25099033 -0.1251463 0.5550231 
-0.28649044 0.124501966 -0.6480245 
-0.19935568 0.22199309 -0.6310806 
-0.30509531 -0.09940625 -0.0013079084 
-0.2723766 0.14918764 0.17908445 
-0.13789023 -0.10329886 -0.055355854 
-0.14619592 0.28256384 -0.23927067 
-0.20596668 -0.09339349 0.036654774 
-0.22138458 0.25682616 0.020908162 
0.01434318 0.088296436 -0.8129926 
0.235786 -0.06735526 -0.15887153 
0.25118327 0.038481995 0.3778991 
-0.2813858 -0.011439333 -0.42938808 
0.15429081 -0.095109895 -0.29143652 
-0.14866906 0.26545596 0.22709462 
0.25276834 -0.05924269 -0.6598451 
0.26785085 -0.07543799 0.6828197 
0.28336337 0.031174755 -0.23293698 
0.3195286 -0.064212866 0.5001902 
-0.2611387 -0.03568152 0.9475365 
-0.24860148 -0.09436823 0.488853 
0.2783524 -0.021180106 0.362084 
-0.17967252 0.19269739 -0.017961342 
-0.2814139 0.030103333 0.18894148 
0.08032383 0.28097692 0.08070133 
-0.081969984 0.10014044 0.607884 
-0.20702434 -0.12966824 0.26952517 
0.21583308 -0.027425954 -0.483302 
0.17217623 -0.024384812 -0.39720428 
0.31988177 -0.045558784 0.34971076 
0.24795131 -0.024124008 -0.78090334 
-0.2813858 -0.16446584 0.39915982 
-0.2814139 0.038645938 -0.027881978 
0.2483476 0.21051538 -0.57243025 
0.2790213 -0.06597038 0.19694178 
0.25048068 -0.042774044 -0.3568749 
0.24517465 -0.03796582 0.9347998 
0.17365263 0.16734098 0.0169261 
0.16054209 -0.1361616 0.06873348 
-0.23908919 -0.027121866 -0.46641052 
-0.14299205 -0.08602535 0.96258724 
-0.047777843 -0.12303831 -0.04868863 
-0.31693837 -0.10218678 -0.5273082 
-0.31673136 -0.069866545 0.24789442 
0.08340488 -0.028968304 -0.5546657 
0.038598854 0.28273812 -0.1976823 
0.08559868 -0.02053362 0.067960426 
0.23238824 -0.16455296 0.3058956 
0.30329382 0.09876708 -0.49457175 
-0.25108963 -0.0389251 -0.36312246 
-0.13828836 -0.023886997 0.4243982 
-0.2560294 0.108050786 -0.50546676 
0.02393528 0.07277176 0.8775996 
-0.19499299 -0.06343812 -0.3076666 
-0.20232065 -0.11703528 -0.8081755 
0.17761905 0.028187295 0.38054278 
0.25592348 -0.02546832 0.13546516 
0.2549792 -0.024914576 -0.45910254 
-0.18550692 0.08591134 0.0049754083 
-0.05192872 -0.07589534 0.031806447 
-0.2842693 0.095852695 0.5465385 
-0.027825087 0.0066332626 0.33133632 
-0.26823217 0.08488087 0.7210871 
-0.06010606 0.15942876 -0.008121551 
0.13305631 0.0019319197 0.50137895 
0.24450481 0.19075637 -0.058152206 
-0.049133398 0.28222007 -0.005787415 
0.16967215 -0.068187706 -0.21433209 
-0.27035964 0.1580554 -0.48405328 
0.1359885 0.23214519 -0.6285316 
-0.23570266 -0.118545495 -0.53947073 
-0.11563931 -0.024384812 -0.39224297 
0.04022477 -0.024384812 -0.41265586 
-0.24165697 -0.059307 -0.73912483 
-0.08359609 0.021464432 -0.32270694 
0.31948644 -0.06586237 -0.22727494 
0.13960831 0.2826594 -0.26281905 
0.31342816 0.02001473 0.8930999 
-0.31322116 -0.06460825 0.09165685 
-0.2813858 0.05444323 -0.59464186 
0.21126524 0.2838651 -0.076112576 
0.28336337 -0.038049664 -0.73472935 
0.1713153 0.10878806 0.4754961 
0.15518732 -0.021365594 0.016799068 
-0.2308978 -0.08558121 0.11330428 
0.044114932 0.09555853 0.66807914 
0.2155764 0.27290824 0.115402535 
-0.14384548 0.05062108 0.33585826 
-0.18166885 -0.028968304 -0.5650511 
-0.12578394 0.075268336 0.8567117 
-0.18620673 -0.103970446 -0.17866054 
-0.2813858 -0.06369272 -0.25677484 
-0.25488368 -0.1237513 0.35656065 
-0.12096033 0.04853201 0.95113295 
0.0006236118 -0.122105904 0.26038668 
0.31777865 0.028186172 -0.28289005 
-0.012745948 -0.057978533 -0.28937182 
0.06932783 -0.16455296 0.12820666 
-0.28529978 -0.12665427 -0.78506 
-0.31438184 -0.10728991 0.7102605 
-0.28421494 -0.21462128 -0.3275568 
-0.18441837 0.037463132 -0.27472585 
-0.3073549 0.062211193 -0.5189099 
-0.046622954 -0.06563098 0.21008699 
-0.22135085 0.09854505 -0.3906972 
0.11409076 -0.1520579 0.47223037 
-0.30390278 -0.11677907 0.21806666 
0.28336337 -0.03733938 -0.25765827 
-0.2814139 -0.1274824 0.08706156 
0.31662077 -0.23554102 0.65769374 
0.046969555 0.091196775 0.015164255 
0.060717598 -0.16455296 0.036858995 
-0.03537056 -0.15438117 0.29666245 
-0.3106515 0.034895077 -0.093247615 
-0.27704468 0.07534235 0.3067565 
0.18434997 0.0027092788 -0.3212587 
0.12965012 -0.05923479 -0.65011173 
0.30214158 0.10560948 -0.1356276 
-0.26845327 0.15775095 0.10135013 
-0.2456515 -0.15416758 -0.34563425 
-0.029364066 -0.024384812 -0.45300114 
-0.281413 -0.05769214 0.45447147 
0.22036251 0.2670476 -0.19317628 
0.26211295 0.08276837 0.75363535 
-0.24277551 0.034294683 0.061150596 
-0.0075751757 0.045033056 -0.27624816 
-0.3097297 0.08032052 0.42618284 
-0.31859466 -0.04079477 0.30671436 
-0.23541977 0.22207645 -0.5813158 
0.22002245 0.26774365 -0.44461018 
-0.045841195 0.024138717 0.02203682 
0.20926984 0.16484721 0.3776949 
-0.2813858 -0.14312792 -0.26278064 
-0.19903435 0.26989922 0.16899696 
0.0032390496 -0.16455296 0.37705785 
0.23449886 -0.10947379 0.52549696 
0.22467367 0.24224766 0.26854342 
0.2790213 -0.09273744 0.25511625 
0.21192755 0.054057267 0.94070065 
-0.22162251 0.09679887 -0.56952995 
0.1946042 -0.103442185 -0.23769687 
0.2745949 -0.074253686 -0.38197088 
-0.06260619 -0.07497952 -0.82336015 
-0.23795474 -0.0650393 -0.1591966 
0.31996423 -0.003677837 -0.050056364 
0.28339148 -0.11650973 0.4449198 
-0.018036818 0.01645432 -0.32239315 
-0.2661581 -0.021502554 0.6213702 
0.2790213 0.067613736 0.03048406 
0.18295133 0.09403435 -0.79678494 
0.2546148 -0.027661184 0.6767361 
-0.14211145 -0.0196875 -0.7819142 
0.11483552 0.06917444 0.49088964 
0.29458812 -0.16054252 0.08474718 
0.28336337 0.104611784 -0.25185007 
-0.31738898 -0.21068858 0.71496046 
-0.14302579 0.17049894 0.37021637 
0.2833924 -0.13681331 0.011843385 
-0.22696042 0.025609776 -0.32368684 
0.024656711 -0.12209475 0.19187087 
0.31443334 -0.16125448 -0.3983284 
0.26071993 0.09857504 -0.37837544 
0.31648025 -0.0624785 -0.483909 
0.23842871 0.09838393 -0.4560907 
0.28261298 0.099959634 -0.76072466 
0.2540471 -0.08781699 -0.28721246 
-0.31704426 -0.17565687 -0.5296943 
0.3140408 -0.12826172 -0.35586596 
0.007255439 -0.16455296 -0.016854044 
0.006374255 -0.064085424 0.4950181 
-0.1156674 -0.16455296 0.37705976 
0.0548015 -0.05928431 -0.7111538 
0.3009415 -0.15351932 0.31239042 
-0.13532151 0.2826847 -0.13808015 
-0.2813858 -0.038265593 -0.6457631 
0.28336337 0.08317777 0.48498496 
-0.22203659 0.10022849 -0.76147497 
0.069737874 0.012821774 0.015108704 
-0.042456716 -0.028968304 -0.6348428 
0.32029396 0.025383724 0.7133651 
0.23216152 -0.15918414 -0.097384535 
-0.09545404 -0.05926433 -0.6865234 
0.114599444 -0.06674897 0.96812177 
0.31820866 0.02851424 -0.11215415 
0.015604771 -0.102072015 -0.24711826 
0.29300773 -0.20011583 0.5729881 
-0.3268666 -0.016571604 0.71348035 
-0.06766211 -0.16455296 0.17455876 
-0.3196448 -0.00908796 -0.3736193 
-0.31194335 -0.0597813 -0.09571328 
0.3034203 -0.11116799 -0.10158515 
-0.22873753 0.21075426 -0.07056202 
-0.2513407 -0.060116105 -0.110748015 
-0.07977609 -0.058762997 0.07270879 
0.09044691 -0.12124404 -0.088140175 
0.19487587 0.14594631 -0.75268877 
-0.10433492 0.10359348 -0.808895 
-0.30622417 0.074043006 -0.33636275 
0.28287998 0.081864364 0.4018288 
-0.31229746 -0.08654097 0.57552123 
-0.2814139 -0.06859362 0.17681926 
0.2790213 -0.0777592 0.11145569 
0.12237677 0.057124358 0.059114445 
-0.2802579 0.12390241 -0.10792356 
0.17360017 0.10222294 0.57547253 
-0.11627165 0.094617985 0.67850757 
-0.2526157 0.055287287 -0.32933578 
0.2833924 -0.09151698 -0.050948203 
0.014765957 -0.06786751 -0.16658516 
0.034723118 -0.11540758 -0.8093475 
0.15592833 0.11740101 -0.32551268 
-0.11812464 -0.16455296 -0.058656212 
-0.19802354 -0.10170066 0.93524194 
0.19407117 -0.06737699 -0.7914255 
-0.17614359 0.18258649 -0.70331836 
0.055450894 -0.13879146 0.8848785 
-0.083419874 0.26340812 0.2279799 
0.27915058 0.033532593 0.1895963 
-0.30001506 0.08811564 -0.7391482 
0.03907803 -0.070168756 0.23549305 
-0.31539267 -0.031231992 -0.23435438 
-0.29107797 0.10870842 0.051782064 
0.10187206 -0.06965033 -0.14070226 
-0.04876973 -0.11720727 0.10452795 
-0.21454312 -0.14223057 0.8702775 
-0.31881106 -0.001290208 0.0050338637 
0.27211517 -0.028968304 -0.5688395 
-0.0007254205 0.10822691 0.4669234 
0.26063845 0.0053021605 -0.33546805 
-0.2813858 0.0676437 -0.47422528 
0.2876914 0.09211578 -0.5984968 
0.3171454 0.051922295 0.58017427 
0.28339148 0.06342904 0.2814544 
0.2790213 -0.0585236 0.016537605 
-0.032138124 -0.107541166 0.3217519 
0.030720724 -0.03336584 -0.79536104 
-0.2862375 0.11846521 -0.19224416 
-0.18958576 0.12647113 0.36376745 
-0.09756559 -0.07348916 0.24571261 
-0.111658834 0.071315035 0.008477175 
-0.22549808 0.092328444 -0.70320594 
0.107084416 0.07046161 0.8925556 
-0.0024846408 -0.06430096 -0.09614234 
-0.27555424 0.14349844 -0.25290865 
-0.27704468 0.00578358 0.27107653 
-0.07499877 0.11665531 0.35154128 
-0.2813858 -0.104454964 -0.20748407 
0.2448505 0.2156022 -0.21732424 
-0.1253502 -0.010125656 -0.27347893 
0.29202783 -0.18417709 0.7072131 
-0.23979087 -0.06813693 -0.26540184 
-0.0363883 -0.103970446 -0.10578296 
-0.089538686 0.097654164 0.05337922 
0.27046642 -0.2658306 0.6368789 
-0.2982951 -0.15439522 0.47278687 
0.33023062 -0.06529347 -0.64458746 
-0.09542031 -0.16455296 0.31653488 
0.07035419 0.013827056 -0.2755858 
-0.26194343 0.03804077 -0.27946976 
-0.091730244 0.278041 -0.56217694 
-0.06607462 0.10317661 -0.30184528 
0.12103527 -0.032348476 -0.31875458 
-0.014800822 0.08284426 0.36310986 
0.19641598 0.13276362 -0.006306029 
0.08196389 0.086179264 -0.8130169 
-0.3176194 -0.21531825 0.5655171 
0.31000227 -0.12219855 0.6601229 
-0.3191071 -0.10183032 0.8500651 
-0.19370115 -0.13917705 0.4777922 
0.016393933 0.28280553 -0.50171953 
0.25590196 0.1879019 0.31302932 
-0.23728773 -0.22418134 0.61633116 
-0.16622661 -0.024384812 -0.44741592 
0.041545376 -0.06842331 -0.2824788 
-0.0123602655 0.22138883 0.21833271 
-0.25571463 -0.11452699 0.2990897 
0.13900502 -0.028968304 -0.60006684 
0.28336337 0.047807865 -0.74771434 
-0.2530232 0.080047905 0.48815602 
-0.1569073 0.28244394 -0.40765613 
-0.15097547 0.2822416 -0.027509324 
-0.24056281 0.07066302 0.85690564 
-0.27704468 0.049189646 0.39434186 
-0.2814139 0.044986214 0.101132326 
0.31829202 -0.05922947 0.068389595 
-0.0032203582 -0.06848992 -0.23138937 
0.29547435 -0.119509555 -0.5064326 
0.30963036 -0.120193794 0.8953669 
-0.25526965 0.18346989 0.23004554 
0.16070135 -0.15589784 0.45829546 
0.106605716 -0.072729975 -0.057984512 
-0.20838457 0.27895436 0.105136305 
0.29253936 -0.09841671 0.5637512 
-0.3188073 -0.039331395 0.37112978 
-0.059986994 0.2826669 -0.37012973 
0.245747 -0.021926269 -0.4078744 
-0.3175492 -0.2081742 -0.41221747 
0.10848681 0.00675917 0.39757386 
0.2809642 0.13356833 0.2954212 
0.26802886 0.037764404 -0.41969785 
-0.063840054 0.2826557 -0.15983832 
0.28294462 -0.16759475 -0.07915905 
0.21287559 0.016389681 0.50038975 
0.025441471 0.10161496 0.39274463 
0.2456955 -0.11251193 0.19173877 
0.16587248 -0.08341046 0.03337531 
-0.21572348 -0.103970446 -0.2209609 
0.006206165 -0.028968304 -0.58816576 
0.2575217 -0.103970446 -0.1815768 
-0.24190241 -0.16213134 -0.09720749 
0.31466284 0.08273558 -0.038120568 
-0.24365987 -0.070114516 0.23515582 
-0.121919625 -0.07795293 -0.27794746 
0.023380788 0.09848416 -0.29987895 
-0.04237718 -0.14144225 0.47719356 
-0.30331632 0.0927575 -0.37857032 
0.27208427 -0.07147232 -0.10884068 
-0.24771528 -0.22545725 -0.42317238 
0.15509178 -0.08007254 0.17092116 
-0.17590752 -0.16455296 0.39793637 
-0.045996983 0.071315035 -0.81098783 
-0.08167433 0.036399953 0.37197763 
-0.031016022 0.282755 -0.06933763 
0.13715951 -0.057340167 0.4961788 
-0.31399214 0.056318708 0.15881582 
0.2790213 0.008277259 0.05700199 
-0.26122114 0.18031289 -0.6062769 
-0.10068045 0.060799435 0.49284378 
-0.018024173 -0.0593028 -0.73394805 
-0.24711011 0.18231201 0.3536903 
0.28642857 0.12504718 -0.30260128 
0.07753385 0.18234575 -0.698551 
-0.26163897 -0.101519115 0.41541335 
0.06699969 -0.16455296 -0.041579243 
0.274979 0.104084365 0.17935425 
-0.23623103 -0.15499663 0.5167838 
0.2245238 -0.15245697 0.47078213 
0.31796134 0.042781923 0.19352995 
-0.30124885 0.00018834422 0.46310967 
0.28427863 -0.12982497 -0.30555034 
-0.19470821 -0.12218515 -0.09103302 
0.31443614 -0.08844764 0.7862558 
0.25878638 -0.110922076 0.93110317 
-0.18854123 0.10961618 0.46298042 
-0.18087257 -0.07519583 0.20656742 
-0.07051805 -0.024384812 -0.48834857 
-0.21961495 0.26467937 -0.24997929 
0.18439776 -0.16455296 0.097801715 
-0.10059052 -0.12263753 -0.097384535 
0.046634555 0.28271374 -0.124249205 
-0.1435991 -0.00036689587 0.94597584 
0.30577916 0.08736808 -0.4179479 
-0.008228033 -0.16455296 0.13991077 
0.008805837 0.2805488 0.099120535 
0.21583308 -0.12334549 -0.29472375 
0.20054166 -0.116706185 -0.07849112 
-0.07660239 -0.08388354 0.93122494 
0.21428078 -0.052232016 -0.32000056 
0.10461126 0.002901326 0.9519676 
-0.1822478 0.054283038 0.36326346 
-0.15893829 -0.16455296 0.05489222 
0.082302734 0.21445836 0.3026149 
-0.05471121 -0.1590736 -0.034704987 
-0.2813858 -0.007427572 -0.5074012 
-0.21380584 0.05789628 -0.81185716 
0.23463094 0.10202809 0.5121831 
-0.05804697 0.027315788 0.9515901 
0.3031861 -0.12532924 0.21518786 
-0.32207486 -0.04155508 -0.52958286 
-0.31075174 0.036570363 0.88411224 
-0.3126853 -0.1194957 -0.30725536 
-0.21367843 -0.001451244 0.9476246 
-0.29859582 0.0962602 -0.7815844 
0.30499974 0.100710005 -0.20427644 
0.2793501 -0.14703402 0.75813955 
0.28336337 -0.011294036 -0.6728404 
0.23606332 -0.118599825 -0.50819373 
-0.24482432 -0.034947254 -0.31822434 
0.23386557 0.10146882 -0.72409475 
-0.19435596 -0.074725926 -0.062488664 
-0.30752915 -0.120424904 -0.620847 
-0.20794427 0.15540425 0.026067413 
-0.07811589 -0.103970446 -0.22793539 
0.21100947 0.28512695 -0.31313562 
-0.010987852 -0.13030677 0.894195 
-0.25914988 0.1672192 -0.063130364 
0.19795327 0.2765299 0.17712091 
0.2146677 -0.07330658 -0.2355928 
0.07282445 0.28268096 -0.426988 
0.31606337 -0.05185401 0.68770796 
-0.24447489 0.039573375 -0.44260076 
0.16865292 -0.024384812 -0.49488086 
0.2733321 0.15090105 0.07400394 
0.23453537 0.095892034 -0.59664756 
0.32592133 -0.08225875 -0.71139354 
0.22292185 0.21646406 -0.63897693 
-0.29534602 -0.17872864 0.7529946 
-0.12871519 0.0063369526 0.015415881 
-0.131994 -0.16455296 0.2638079 
-0.32197088 -0.018399961 0.5318981 
0.017758947 -0.12209475 0.050811816 
0.051545925 0.28228 -0.5456312 
0.026093299 -0.103970446 -0.19927111 
-0.25549167 -0.060543217 -0.42689902 
-0.29135713 0.10620997 0.34005982 
0.2952523 -0.11491108 -0.8013659 
0.15680987 0.28246737 -0.42891407 
-0.23664697 0.22885047 -0.3143797 
0.27032402 -0.2241879 0.54392475 
0.24732833 -0.19887082 -0.48823053 
0.2925384 -0.01352325 -0.80186146 
0.28339148 0.056244705 0.3422276 
0.05335564 0.020953871 0.3836136 
-0.2813858 0.031026457 -0.11584608 
0.12357963 0.10424081 0.54138976 
0.08923487 0.055813767 -0.32978076 
-0.2813858 0.043782424 -0.17512316 
-0.044694737 0.27958295 0.124005 
0.32337418 0.009244968 0.34787932 
0.20317219 0.027664557 -0.40270138 
0.28336337 0.0143165365 0.4678977 
-0.1955635 0.008094488 0.3933011 
0.20259231 -0.057565607 0.022397302 
-0.31365302 0.07773774 -0.033476844 
0.23383278 0.0671828 0.88159037 
0.036914486 0.10866627 -0.35259655 
-0.025264433 0.060527753 0.4929075 
-0.22477673 -0.103970446 -0.13318442 
-0.11653489 0.104097486 -0.34984142 
-0.18626669 0.11316385 0.39927506 
-0.24189493 -0.09172775 0.7001065 
-0.28029445 0.09000986 0.20561562 
0.28336337 -0.014093482 -0.50364935 
-0.3025238 -0.12153361 0.34186408 
0.09947571 -0.076406084 0.18373099 
-0.23327632 -0.16455296 0.38052872 
0.12433469 0.09401094 0.68525255 
-0.2814139 -0.0078040753 0.07250069 
0.16079222 0.011139187 -0.27424803 
-0.010551302 0.21842386 -0.6475121 
-0.10931402 0.2821685 0.013787251 
-0.30177438 -0.02584997 -0.7990848 
0.3239981 -0.036454942 0.90890276 
0.05106572 -0.066567875 0.9707702 
0.26266658 0.06191704 -0.3097866 
0.16098706 0.08476939 0.7778039 
-0.2775206 -0.16901495 0.1467615 
0.3168812 -0.065023065 0.59367925 
0.08038022 0.28271186 -0.35359237 
0.23639306 -0.25127083 -0.37213635 
0.2802897 0.10646385 0.12577967 
-0.2530719 0.053072687 -0.3982235 
0.1028304 -0.144805 0.07255773 
-0.2813858 0.0012808447 -0.60104954 
0.19548386 -0.031812344 0.5002145 
0.09893049 0.26961634 0.22126958 
-0.32194373 -0.10243728 0.77036107 
0.31718287 -0.18055072 0.6610185 
-0.054617062 -0.16455296 0.25868267 
0.106708765 0.18985234 0.34010762 
-0.28167996 0.096584335 -0.68749017 
0.28336337 -0.15365046 0.45920512 
-0.29676342 -0.08530233 -0.3655516 
-0.17715815 -0.059248835 -0.66742384 
-0.27704468 -0.020020345 0.21877675 
0.03659316 -0.11250256 0.38663575 
-0.035627242 -0.071510166 -0.063002974 
0.23951635 0.025148494 0.07714129 
0.28336337 0.00450775 -0.37970477 
0.21250743 0.11262894 -0.31210044 
-0.29850212 -0.09253341 -0.48179466 
-0.30570987 -0.110781185 0.6379207 
0.002213787 -0.088383935 0.30376908 
-0.08062314 -0.15860708 -0.097384535 
-0.18889534 0.11170526 -0.8021725 
0.30943173 -0.10232692 0.3448928 
0.08431535 0.08957987 0.73442155 
0.0091401255 0.06581695 0.9270721 
-0.13994369 0.10214987 0.57661074 
0.15833592 -0.16455296 0.39873266 
0.034627188 -0.16830392 0.34653124 
-0.23494947 0.23252648 -0.45818254 
-0.10283135 0.08178941 0.80409247 
0.16708565 0.043099493 0.013064507 
-0.2814139 -0.12031277 0.043657552 
0.262794 -0.08415072 -0.31991434 
-0.2813858 0.05790097 -0.67123103 
-0.11977529 -0.103970446 -0.19896479 
-0.1431204 -0.028096141 0.06998925 
-0.03213728 -0.12718618 0.2129564 
-0.22973992 0.09304791 0.6480213 
-0.06964757 0.28267533 -0.42673507 
-0.25507572 0.10378084 -0.34932524 
-0.1418276 -0.07018947 -0.15934555 
-0.14871591 0.22937882 0.2808811 
-0.021641819 0.08441622 0.7809038 
-0.19342947 0.0007028367 0.06557505 
0.28336337 0.052075934 -0.690813 
-0.0040806136 -0.1635534 0.43092585 
-0.08146946 -0.07942212 -0.266822 
0.1414819 -0.15877102 -0.097384535 
0.28336337 -0.05358668 -0.18528748 
0.06787776 -0.07481745 0.25256345 
-0.28941607 -0.22079574 -0.52193475 
0.27970985 0.09771412 -0.54217714 
-0.050305244 -0.06836177 0.15681069 
-0.24753636 -0.11250743 0.21768819 
-0.2813858 -0.039564937 -0.7045587 
0.3139537 0.046874806 -0.23316929 
-0.28188324 0.13302405 -0.39678174 
-0.16983142 -0.15042225 0.24231014 
-0.23363419 0.18150918 -0.7058655 
-0.1446633 0.09036303 -0.2930478 
-0.1611248 -0.06851015 -0.21069917 
0.01962665 0.28279617 -0.3577218 
-0.29062828 -0.11464278 -0.08779261 
-0.23728773 -0.07423805 -0.47402483 
-0.25657088 -0.120830536 -0.17381072 
-0.24426505 -0.059263747 -0.6858086 
-0.1731758 0.23413685 0.0019847597 
-0.20609127 0.285156 -0.037728988 
0.21240625 -0.16455296 0.23965338 
0.00049888605 -0.12209475 -0.071181245 
-0.087565415 -0.00088092074 0.40343544 
0.034411818 -0.10411153 0.24092273 
0.1388214 -0.12130981 -0.80385876 
-0.06897167 -0.16436093 0.4280424 
-0.09493786 0.1959809 0.015067484 
0.17022394 -0.05131784 -0.32070783 
-0.208482 0.060064036 -0.4184116 
0.007996112 0.18640397 0.34559256 
-0.21385455 0.020802202 -0.4573226 
0.122190356 -0.0838264 0.27687064 
0.18756789 -0.08619931 0.07942138 
-0.19739307 0.2818444 -0.46890518 
0.26527655 0.04422178 0.49618253 
0.26420483 -0.028073471 -0.31189626 
-0.30581668 -0.13095194 -0.398142 
0.110155255 -0.070599504 -0.21546842 
-0.31840542 -0.20971337 0.64241076 
-0.22989823 -0.03642431 0.018625833 
-0.3131303 -0.0069691963 -0.64841425 
-0.11978559 0.28056568 0.0995096 
-0.16693953 0.102439344 0.051478352 
0.26227596 -0.13562928 0.35124803 
0.2392325 -0.0902863 0.57224053 
-0.2814139 0.07397649 -0.08267206 
-0.09590651 -0.07050385 -0.16957074 
0.049646374 0.14707421 0.011822401 
-0.2700449 -0.22260377 0.7287764 
-0.27704468 0.06809056 0.25222716 
0.0765384 -0.024384812 -0.37691686 
-0.12229809 -0.16455296 0.20078921 
0.26727378 -0.13562928 0.41457775 
-0.23856178 -0.11359983 0.16114469 
0.3046784 -0.15988863 -0.4513542 
0.25103152 0.20253195 -0.26994157 
0.17039162 -0.16455296 0.3042356 
-0.27704468 -0.04917721 -0.010937672 
